ply
format ascii 1.0
comment Created in Blender version 4.0.2
element vertex 478
property float x
property float y
property float z
end_header
0.001626929 -0.057498522 -0.047668546
0.0015164684 -0.07199078 -0.018584203
0.0009417334 -0.057379603 -0.024866603
-0.004766768 -0.06333297 0.00487788
0.0014680298 -0.07393245 -0.011484333
0.0012175064 -0.07130369 -0.0021533328
0.0009541158 -0.05407548 0.02055245
-0.04883331 -0.029971415 0.025300896
0.00095405587 -0.049154714 0.03807235
0.0009680298 -0.049771965 0.04700701
0.0017166932 -0.041023247 0.07770782
0.0016114945 -0.056677878 -0.049701106
0.0015147072 -0.054677397 -0.0515829
0.0015043928 -0.051633626 -0.052802473
0.0018432536 -0.05264882 -0.052720957
0.0021218127 -0.053504527 -0.054788608
0.0020891237 -0.055250213 -0.05735818
0.0019170952 -0.055245392 -0.0601868
-0.00022305019 -0.050571322 -0.06612842
0.0012697137 -0.06892935 -0.022184324
-0.005950718 -0.06070604 -0.021682503
-0.06893761 0.00031299843 0.050318416
-0.028821107 -0.036700577 0.019856572
-0.035454225 -0.03616777 0.018743625
-0.042057216 -0.034377173 0.018604932
-0.05137779 -0.02934207 0.023235781
-0.023203593 -0.035904706 0.021582955
-0.040550087 -0.038440257 0.040676862
-0.032494616 -0.03824319 0.039927978
-0.047863107 -0.036454797 0.03921488
-0.052439857 -0.03389208 0.036058635
-0.056058034 -0.02642754 0.018687781
-0.026305132 -0.04306972 -0.076792374
-0.05162216 -0.028036483 0.027938744
-0.074149325 0.00052402867 0.021209462
-0.06356324 -0.020111062 0.025101667
-0.03401331 -0.043524012 -0.011156339
-0.00770405 -0.056777924 -0.046144694
-0.0068137166 -0.053790763 -0.05147014
-0.016820716 -0.05327571 -0.048241988
-0.022868402 -0.04905153 -0.0506859
-0.014114558 -0.051486805 -0.051943574
-0.01980961 -0.047616504 -0.052699614
-0.032372817 -0.04137017 -0.055491365
-0.0044269236 -0.071347386 -0.018354096
-0.0054287724 -0.07306149 -0.011531147
-0.060867622 -0.03172762 0.042919703
-0.019883119 -0.04380483 0.0062328056
-0.021856094 -0.05625613 -0.01577897
-0.022492388 -0.054381557 -0.011930573
-0.053618252 -0.035623632 -0.010145373
-0.005152378 -0.069387935 -0.002732419
-0.046310954 -0.041876532 0.05058641
-0.05508855 -0.037163906 0.04800598
-0.062546164 -0.010883579 0.06188264
-0.01597965 -0.047264144 0.044265334
-0.025306521 -0.036549002 0.036674354
-0.037562523 -0.039371565 -0.049444657
-0.07163287 0.013035286 -0.04413913
-0.01665971 -0.054126933 -0.019698849
-0.010946625 -0.054958068 -0.021726875
-0.029778684 -0.039830044 -0.054814074
-0.0280371 -0.041463114 -0.054632686
-0.05844609 -0.03391622 0.052742787
-0.022392765 -0.053037852 -0.018771265
-0.03387903 -0.04531701 0.050133273
-0.035036836 -0.046213917 0.05552022
-0.03620867 -0.03338156 0.07590182
-0.05882319 -0.024106482 0.055534832
-0.033261377 -0.040065125 0.063927814
-0.06452123 -0.026324032 0.046716984
-0.06543516 -0.0138065275 0.046260536
-0.007435194 -0.055973984 -0.049222875
-0.015490795 -0.052683815 -0.050223753
-0.021454286 -0.048846737 -0.05179937
-0.015022349 -0.052858733 -0.020894514
-0.028869608 -0.04067222 -0.054725297
-0.025720483 -0.044877313 -0.055463213
-0.027009845 -0.041709073 -0.0545064
-0.012962353 -0.06242361 -0.01787299
-0.018641096 -0.04652852 -0.05323342
-0.012945827 -0.048963554 -0.052757617
-0.0061212745 -0.050995566 -0.052710406
-0.009376487 -0.050171584 -0.06589241
-0.007715509 -0.05476886 -0.06009164
-0.007226414 -0.054812215 -0.0572676
-0.0066227075 -0.0528796 -0.054689877
-0.006023145 -0.05199088 -0.052700456
-0.018688418 -0.047226623 -0.053352386
-0.020069519 -0.048266716 -0.054527033
-0.021634007 -0.04948526 -0.056084294
-0.023068273 -0.0486781 -0.05751239
-0.029430753 -0.047307037 -0.037273142
-0.07655575 0.023641158 -0.008421486
0.0012286946 -0.061239816 -0.02340339
-0.022910982 -0.0442063 -0.053874955
-0.02417362 -0.044873603 -0.05457961
-0.008690216 -0.05576572 -0.024475005
-0.020031834 -0.04897467 -0.022696935
-0.00974455 -0.055417545 -0.023179496
-0.027082793 -0.041874662 0.002234303
-0.03790233 -0.040123507 -0.002198265
-0.023741968 -0.05107194 -0.01491221
-0.05230406 -0.022922017 0.0706672
-0.0486831 -0.032585323 0.06175575
-0.048637502 -0.04032325 0.05587785
-0.026425982 -0.04503703 -0.05963938
-0.01835952 -0.04924477 0.053426415
-0.01708951 -0.044356406 0.06343224
-0.018793864 -0.03949242 0.07779466
-0.047876224 -0.031746194 0.02007893
-0.06268086 -0.023144267 0.013878563
-0.019735862 -0.03500831 0.023330195
-0.058001135 -0.028725237 0.033262353
-0.015001625 -0.045958623 0.01060486
-0.017353076 -0.062147565 -0.0134317465
-0.069839515 -0.016765196 0.00755872
-0.058081236 -0.028883535 0.007893601
-0.0493187 -0.034623437 0.004636284
-0.036348432 -0.03750684 0.0061516613
-0.027136324 -0.03884875 0.009504143
-0.020336326 -0.040292904 0.012568327
-0.005574432 -0.05172623 0.019183034
-0.06946335 -0.019061314 -0.0071140463
-0.062875815 -0.02574754 0.034864005
-0.002452764 -0.06856055 -0.021912254
-0.019647185 -0.046590894 -0.0007994488
-0.07516658 0.020806026 0.022369305
-0.015074998 -0.0409393 0.015917458
-0.024176545 -0.045104854 -0.01512206
-0.05435183 -0.026998553 0.027986454
-0.017772803 -0.059767433 -0.008807565
-0.075546935 0.020012539 -0.025641741
-0.020024188 -0.03328883 0.025900228
-0.011551394 -0.06573618 -0.005061767
-0.0576155 -0.01936784 -0.06195315
-0.05800316 -0.009052405 -0.07022553
-0.07611517 0.0022512893 -0.008010103
-0.06562493 -0.011379609 -0.05215163
-0.06972877 -0.004894581 0.03479628
-0.02834308 -0.03992842 -0.084024705
-0.0016878932 -0.060796477 -0.023057451
-0.025909325 -0.044453867 -0.0058336053
-0.06867935 -0.0141623095 0.024661353
-0.041721478 -0.033646002 0.02259685
-0.03583155 -0.03523355 0.022529935
-0.027120154 -0.04391072 -0.05613651
-0.06884537 -0.017783662 -0.02118665
-0.014915283 -0.03871067 -0.09342055
-0.037725903 -0.025808703 -0.08514071
-0.04737685 -0.018404484 -0.07923842
0.0011652736 -0.04575929 0.06251228
0.00043295557 -0.04066086 -0.09424442
-0.030225785 -0.03552272 0.023516456
-0.024940798 -0.034721702 0.024835771
-0.021564841 -0.03342346 0.02545504
-0.06725029 -0.019581655 0.03715104
-0.026696831 -0.035403118 0.031059813
-0.03291332 -0.03636092 0.033311535
-0.039032154 -0.036020033 0.03363509
-0.044933464 -0.034548603 0.03235408
-0.048387576 -0.032596752 0.030491656
-0.0726894 0.012010727 0.037912205
-0.045799408 -0.031711653 0.023679307
0.0005859483 -0.056310505 -0.030455796
-0.022778291 -0.050410323 -0.033122875
-0.016508434 -0.05610668 -0.018635329
-0.009305955 -0.055877395 -0.030882994
0.000818537 -0.049242727 0.029204926
-0.048295725 -0.025986051 -0.07093079
-0.039030448 -0.032647945 -0.0778255
-0.015301534 -0.046354674 -0.08824846
-0.06547027 0.0024200822 -0.059012316
-0.022171747 -0.034156546 0.027832543
-0.010230752 -0.054146446 0.008408796
-1.9714935e-05 -0.048096374 -0.08905849
-0.027101314 -0.033504695 -0.090025604
-0.0750124 0.0006071511 -0.023688557
-0.012925183 -0.049884282 -0.052816868
-0.014165063 -0.05094661 -0.054515216
-0.015368617 -0.052498348 -0.05661762
-0.016228443 -0.05216267 -0.0591225
-0.018932674 -0.04847675 -0.06333634
-0.024351478 -0.044329353 -0.053724233
-0.025860455 -0.044388004 -0.053345505
-0.027199911 -0.044332035 -0.05288608
-0.03455403 -0.043225594 -0.042934895
-0.059707016 -0.02991304 -0.025229031
-0.010123019 -0.048384383 0.015406332
-0.014914478 -0.03737358 0.031152237
-0.019191487 -0.035143726 0.03046756
-0.022805238 -0.043804318 -0.05384987
-0.061601683 -0.02195391 -0.042132832
-0.008629595 -0.04520355 0.030607464
-0.022957329 -0.045484997 -0.0699691
0.0011260433 -0.06536762 0.0057504177
-0.0053301994 -0.05799748 0.01170359
0.0010119474 -0.059443273 0.012983296
-0.015468684 -0.054282203 -0.0025128033
-0.0001326754 -0.05107881 -0.08195056
-0.00015143224 -0.050715983 -0.07343683
-0.011638646 -0.049352027 -0.07312333
-0.039274402 -0.03789296 -0.05820092
-0.029957896 -0.04399602 -0.020597832
-0.031978372 -0.041569702 -0.06503977
-0.0446169 -0.041490763 -0.01929606
-0.036069687 -0.04350537 -0.027675075
-0.050865956 -0.037061214 -0.03073707
-0.013970297 -0.04915856 -0.08128763
-0.019966725 -0.05011691 -0.0063114557
-0.045485944 -0.032407515 -0.06316942
-0.036274135 -0.037113346 -0.07053404
-0.044663653 -0.03652081 -0.049735386
-0.06766879 -0.01625554 -0.03331054
-0.053526413 -0.030333528 -0.05039592
-0.07203589 -0.0028557 -0.03845366
-0.041565094 -0.040872917 -0.037076674
-0.014839287 -0.05011736 0.0039318465
-0.015067776 -0.06348112 -0.016735133
-0.019660987 -0.056962848 -0.018147828
-0.011679864 -0.06790242 -0.012200723
-0.021091187 -0.03910142 0.03853034
-0.032816354 -0.04011526 0.043422062
-0.04284064 -0.039786503 0.0440317
-0.05073638 -0.037377983 0.04226564
-0.05588841 -0.03361766 0.038780503
-0.058242153 -0.024548309 0.02649411
-0.07606961 0.0015996578 0.0068430062
-0.052341804 -0.029689953 0.015176495
-0.045107152 -0.03344918 0.012726856
-0.036110602 -0.03608513 0.013167607
-0.027809437 -0.037251152 0.0151969185
-0.021420885 -0.037224345 0.017539047
-0.01698194 -0.037522435 0.019501012
-0.07600573 0.024247784 0.0072537605
-0.019694483 -0.05401452 -0.019894727
-0.010194761 -0.059142575 0.001906304
-0.009796242 -0.06828906 -0.017377028
-0.006411168 -0.06599056 -0.020827023
-0.010049255 -0.06536949 -0.018454019
-0.017804394 -0.052125126 -0.02187143
-0.004857937 -0.06765266 -0.021465464
-0.004145382 -0.060702518 -0.022662569
-0.017456928 -0.034197748 0.025526756
-0.013528678 -0.037911445 0.02325117
-0.011152236 -0.04231137 0.021239843
-0.05030735 -0.030607378 0.029068245
-0.05489392 -0.030438708 0.0326102
0.006818662 -0.06324523 0.0048058312
0.045692734 -0.029932363 0.023701461
0.007929498 -0.060948573 -0.021791136
0.06631966 0.0009516659 0.048596106
0.027160948 -0.036326624 0.018760474
0.033087663 -0.03587286 0.018377505
0.039018445 -0.034151748 0.018150305
0.04804178 -0.02920166 0.020865293
0.022362247 -0.03564936 0.019729845
0.03781984 -0.0385326 0.038693223
0.030538036 -0.03835874 0.037971213
0.04459265 -0.036637604 0.037019283
0.048946388 -0.034160957 0.033536974
0.05222127 -0.026324868 0.016180988
0.024577953 -0.043340117 -0.07625718
0.048414633 -0.028025031 0.02514623
0.070170775 0.0008956152 0.019893358
0.059473716 -0.019979032 0.020710383
0.03329419 -0.04379683 -0.011550642
0.010202939 -0.056759164 -0.04574221
0.008857584 -0.05372867 -0.051124368
0.018127484 -0.053193286 -0.047130425
0.023287179 -0.048816398 -0.049118344
0.015162822 -0.051302448 -0.051010888
0.020186054 -0.047434375 -0.051317595
0.028996041 -0.041192017 -0.05514661
0.007219386 -0.07151878 -0.018517677
0.007974192 -0.07327392 -0.01163463
0.056902725 -0.031715706 0.037699565
0.020290032 -0.043755025 0.005966654
0.02252992 -0.056590192 -0.015949048
0.022931708 -0.054715976 -0.012107618
0.051713947 -0.035725854 -0.010783653
0.007547743 -0.069351815 -0.002815247
0.043102592 -0.042436108 0.04645066
0.05145385 -0.037497267 0.0432858
0.0610227 -0.010464963 0.059777703
0.015491728 -0.047576934 0.042395756
0.024315175 -0.036481567 0.034633044
0.03411529 -0.039009474 -0.049306154
0.06661457 0.012955759 -0.043432645
0.017506082 -0.054430366 -0.019798428
0.012178188 -0.055462204 -0.02198877
0.029899621 -0.03937681 -0.052950814
0.02779065 -0.041202277 -0.052904908
0.054814912 -0.03412337 0.046831276
0.022629907 -0.05344457 -0.0188758
0.031721592 -0.0459532 0.047083184
0.033103064 -0.04683672 0.051932625
0.037696026 -0.033449456 0.07411726
0.05710748 -0.023961676 0.05364976
0.03393375 -0.040220328 0.062313013
0.060526278 -0.026137372 0.040193163
0.063054614 -0.013487045 0.04460037
0.009675953 -0.055914395 -0.048812445
0.016660491 -0.052555144 -0.04923943
0.021740299 -0.048671186 -0.050290253
0.015859121 -0.05331756 -0.020982059
0.028879507 -0.040375732 -0.052933626
0.026179852 -0.04476255 -0.053867407
0.026824169 -0.041405126 -0.052762497
0.014503922 -0.06247673 -0.018135024
0.018797884 -0.046287373 -0.0519794
0.014015833 -0.048698224 -0.051953163
0.008043525 -0.050764285 -0.05234365
0.00819532 -0.05021023 -0.06586377
0.010512942 -0.054682016 -0.05976141
0.010129406 -0.054633297 -0.056925625
0.009617322 -0.05266756 -0.05433828
0.008701467 -0.051748432 -0.05233677
0.019388378 -0.047002427 -0.052103754
0.020950781 -0.048181355 -0.05338153
0.022652773 -0.04952199 -0.054968525
0.0241688 -0.048747286 -0.056492973
0.027363615 -0.04728967 -0.037280437
0.071453616 0.023839843 -0.00895419
0.023013406 -0.043840513 -0.052297458
0.02453399 -0.04465513 -0.05310471
0.009981288 -0.05601272 -0.024616031
0.020107148 -0.04957074 -0.022780882
0.011073949 -0.055809043 -0.023344196
0.026985293 -0.04183784 0.0018741706
0.03715802 -0.040221475 -0.0027822684
0.023836266 -0.051439837 -0.01510586
0.052070342 -0.022832658 0.06846505
0.047975674 -0.032732405 0.059776355
0.04558992 -0.040817156 0.051043727
0.023522709 -0.044783883 -0.05936222
0.018121993 -0.049696162 0.051142007
0.018735446 -0.044513173 0.0624931
0.021417068 -0.039709933 0.076747715
0.0444752 -0.031561352 0.018875828
0.058176674 -0.023002349 0.011215491
0.019270178 -0.034624785 0.020933481
0.054419987 -0.028733216 0.029380115
0.015670128 -0.04583981 0.010332372
0.018646173 -0.06242699 -0.013691032
0.06672294 -0.016680848 0.0064996146
0.05352053 -0.028713018 0.0067094583
0.045260113 -0.034519807 0.004530169
0.033234347 -0.037284136 0.005997358
0.024779523 -0.03859856 0.008874234
0.018553786 -0.04006041 0.011801183
0.007123927 -0.051680624 0.01902635
0.066429146 -0.01899083 -0.007871653
0.058785755 -0.025551347 0.029815773
0.004813791 -0.06857234 -0.021961736
0.020126395 -0.046583332 -0.0009911299
0.071015984 0.0215385 0.021138342
0.013998654 -0.040720455 0.015438669
0.024355765 -0.04557702 -0.015254328
0.051178653 -0.026963228 0.024600046
0.018866617 -0.06006401 -0.008997771
0.07035055 0.02001391 -0.025651637
0.019619027 -0.032836087 0.0233175
0.013201669 -0.06583225 -0.0051594162
0.05392509 -0.019966714 -0.06110093
0.05400383 -0.009607203 -0.06862884
0.072360024 0.0023186724 -0.008703303
0.06161392 -0.011815213 -0.051543128
0.066761695 -0.004440632 0.033277273
0.026774064 -0.0403288 -0.08322831
0.0042137303 -0.06088476 -0.023177175
0.025832124 -0.04462181 -0.0061168163
0.064601034 -0.013770897 0.019138167
0.039040376 -0.03355921 0.022582302
0.03375385 -0.035046577 0.022522265
0.027733354 -0.043782137 -0.054634128
0.065730564 -0.017886113 -0.02157416
0.015203567 -0.038913198 -0.092890725
0.035860073 -0.026260773 -0.08372671
0.04466269 -0.018918388 -0.0776542
0.028792733 -0.035272986 0.022689933
0.024303803 -0.03434734 0.022891177
0.021195766 -0.03294652 0.022890216
0.06288824 -0.019200414 0.030829027
0.025100194 -0.035115264 0.02916702
0.030314624 -0.036264308 0.032037336
0.03594216 -0.036062315 0.032757338
0.041494217 -0.03467591 0.031356826
0.045047354 -0.032779284 0.028922575
0.06952951 0.012712177 0.036445145
0.042847935 -0.03162615 0.022978755
0.021867396 -0.05046828 -0.033202473
0.017647523 -0.056525506 -0.018816732
0.009859127 -0.055937335 -0.030940874
0.045072183 -0.026578095 -0.07010524
0.036454882 -0.03321869 -0.07672972
0.014493453 -0.046550564 -0.087864995
0.0608454 0.0022276598 -0.057786234
0.021394452 -0.033684157 0.02548545
0.011571976 -0.05413556 0.008263316
0.026428495 -0.03382677 -0.08906461
0.07094657 0.0004749964 -0.024005326
0.014676099 -0.04957091 -0.052088093
0.016145915 -0.050720282 -0.0538102
0.017413381 -0.05234406 -0.055933785
0.018387731 -0.052049562 -0.058453627
0.016719062 -0.04817757 -0.06310928
0.024290418 -0.044004843 -0.052018672
0.025902817 -0.043958217 -0.051654097
0.02728359 -0.043901913 -0.05106395
0.031608645 -0.042899817 -0.04283623
0.056855533 -0.030088527 -0.02550043
0.011360665 -0.04833013 0.015191299
0.014907089 -0.037317947 0.029429113
0.018941144 -0.034793697 0.028298
0.022484241 -0.04337766 -0.05226421
0.05824117 -0.02226218 -0.041987907
0.008681896 -0.045186646 0.029896678
0.020822736 -0.04560978 -0.06952588
0.0070453007 -0.058043092 0.011617681
0.01646732 -0.05444979 -0.002663198
0.010481754 -0.049519375 -0.07298447
0.035973676 -0.038048588 -0.057821672
0.029283123 -0.044390343 -0.020722417
0.029130025 -0.041792087 -0.064570025
0.042893745 -0.04182721 -0.019755423
0.03436389 -0.043712944 -0.027862735
0.04823679 -0.037357256 -0.030973643
0.01294933 -0.049284697 -0.08102939
0.020432178 -0.050357796 -0.0064488193
0.042374253 -0.0328068 -0.0625925
0.033768497 -0.037569366 -0.06999024
0.04129534 -0.036413193 -0.049634486
0.064156316 -0.016477728 -0.033314906
0.050108083 -0.03062888 -0.05006703
0.067866795 -0.0030482379 -0.03821237
0.038708374 -0.04085388 -0.03724126
0.015751023 -0.05006081 0.0037303958
0.01646548 -0.063665085 -0.016958354
0.020405479 -0.057405666 -0.01829591
0.013784825 -0.06803384 -0.012454361
0.020464314 -0.039113626 0.036686957
0.030993568 -0.040450722 0.04122252
0.04020213 -0.040218316 0.041473605
0.04747568 -0.037706457 0.03927733
0.0523756 -0.033863448 0.035246033
0.05446345 -0.024460392 0.022578875
0.07201394 0.0019753757 0.00579983
0.048739992 -0.029576235 0.013612391
0.04174713 -0.033322796 0.012078192
0.033457402 -0.03586621 0.012566311
0.025850872 -0.036967807 0.014110586
0.020154731 -0.0370384 0.015931662
0.016287826 -0.03734053 0.01794906
0.071221486 0.024890888 0.0063824486
0.020133678 -0.05447492 -0.019967878
0.011931761 -0.059101105 0.001835111
0.0119871 -0.06854155 -0.017613754
0.008266847 -0.06624618 -0.020941855
0.01189793 -0.065558024 -0.018687723
0.0181863 -0.052650355 -0.02192302
0.0069483267 -0.06785742 -0.02155776
0.00638354 -0.060901187 -0.022745915
0.017311133 -0.033895634 0.02315324
0.013350106 -0.037800834 0.021811971
0.010722331 -0.042272925 0.020797752
0.04702775 -0.03070747 0.026919695
0.051427204 -0.030622872 0.029390601
-0.039825294 -0.033322297 0.02867472
-0.033449456 -0.033752136 0.029051242
-0.039898437 -0.0336866 0.03446098
-0.046160255 -0.032897376 0.02833485
-0.03975105 -0.032960407 0.022925554
0.030542795 -0.033211775 0.028321767
0.038098976 -0.033687577 0.02824056
0.030799413 -0.03362286 0.034512427
0.022909164 -0.032735817 0.028477995
0.0302851 -0.032798246 0.022094036
